-15 3 0 65 1 66
-15 2.98642 0.285168 0 2 67
-15 2.94579 0.567754 1 3 68
-15 2.87848 0.845198 2 4 69
-15 2.7851 1.11499 3 5 70
-15 2.66651 1.37468 4 6 71
-15 2.52376 1.62192 5 7 72
-15 2.35816 1.85448 6 8 73
-15 2.1712 2.07024 7 9 74
-15 1.96458 2.26725 8 10 75
-15 1.74017 2.44373 9 11 76
-15 1.5 2.59808 10 12 77
-15 1.24625 2.7289 11 13 78
-15 0.981204 2.835 12 14 79
-15 0.707277 2.91543 13 15 80
-15 0.426945 2.96946 14 16 81
-15 0.142746 2.9966 15 17 82
-15 -0.142746 2.9966 16 18 83
-15 -0.426945 2.96946 17 19 84
-15 -0.707277 2.91543 18 20 85
-15 -0.981204 2.835 19 21 86
-15 -1.24625 2.7289 20 22 87
-15 -1.5 2.59808 21 23 88
-15 -1.74017 2.44373 22 24 89
-15 -1.96458 2.26725 23 25 90
-15 -2.1712 2.07024 24 26 91
-15 -2.35816 1.85448 25 27 92
-15 -2.52376 1.62192 26 28 93
-15 -2.66651 1.37468 27 29 94
-15 -2.7851 1.11499 28 30 95
-15 -2.87848 0.845198 29 31 96
-15 -2.94579 0.567754 30 32 97
-15 -2.98642 0.285168 31 33 98
-15 -3 3.67394e-016 32 34 99
-15 -2.98642 -0.285168 33 35 100
-15 -2.94579 -0.567754 34 36 101
-15 -2.87848 -0.845198 35 37 102
-15 -2.7851 -1.11499 36 38 103
-15 -2.66651 -1.37468 37 39 104
-15 -2.52376 -1.62192 38 40 105
-15 -2.35816 -1.85448 39 41 106
-15 -2.1712 -2.07024 40 42 107
-15 -1.96458 -2.26725 41 43 108
-15 -1.74017 -2.44373 42 44 109
-15 -1.5 -2.59808 43 45 110
-15 -1.24625 -2.7289 44 46 111
-15 -0.981204 -2.835 45 47 112
-15 -0.707277 -2.91543 46 48 113
-15 -0.426945 -2.96946 47 49 114
-15 -0.142746 -2.9966 48 50 115
-15 0.142746 -2.9966 49 51 116
-15 0.426945 -2.96946 50 52 117
-15 0.707277 -2.91543 51 53 118
-15 0.981204 -2.835 52 54 119
-15 1.24625 -2.7289 53 55 120
-15 1.5 -2.59808 54 56 121
-15 1.74017 -2.44373 55 57 122
-15 1.96458 -2.26725 56 58 123
-15 2.1712 -2.07024 57 59 124
-15 2.35816 -1.85448 58 60 125
-15 2.52376 -1.62192 59 61 126
-15 2.66651 -1.37468 60 62 127
-15 2.7851 -1.11499 61 63 128
-15 2.87848 -0.845198 62 64 129
-15 2.94579 -0.567754 63 65 130
-15 2.98642 -0.285168 64 0 131
15 3 -7.34788e-016 131 67 0
15 2.98642 0.285168 66 68 1
15 2.94579 0.567754 67 69 2
15 2.87848 0.845198 68 70 3
15 2.7851 1.11499 69 71 4
15 2.66651 1.37468 70 72 5
15 2.52376 1.62192 71 73 6
15 2.35816 1.85448 72 74 7
15 2.1712 2.07024 73 75 8
15 1.96458 2.26725 74 76 9
15 1.74017 2.44373 75 77 10
15 1.5 2.59808 76 78 11
15 1.24625 2.7289 77 79 12
15 0.981204 2.835 78 80 13
15 0.707277 2.91543 79 81 14
15 0.426945 2.96946 80 82 15
15 0.142746 2.9966 81 83 16
15 -0.142746 2.9966 82 84 17
15 -0.426945 2.96946 83 85 18
15 -0.707277 2.91543 84 86 19
15 -0.981204 2.835 85 87 20
15 -1.24625 2.7289 86 88 21
15 -1.5 2.59808 87 89 22
15 -1.74017 2.44373 88 90 23
15 -1.96458 2.26725 89 91 24
15 -2.1712 2.07024 90 92 25
15 -2.35816 1.85448 91 93 26
15 -2.52376 1.62192 92 94 27
15 -2.66651 1.37468 93 95 28
15 -2.7851 1.11499 94 96 29
15 -2.87848 0.845198 95 97 30
15 -2.94579 0.567754 96 98 31
15 -2.98642 0.285168 97 99 32
15 -3 1.10218e-015 98 100 33
15 -2.98642 -0.285168 99 101 34
15 -2.94579 -0.567754 100 102 35
15 -2.87848 -0.845198 101 103 36
15 -2.7851 -1.11499 102 104 37
15 -2.66651 -1.37468 103 105 38
15 -2.52376 -1.62192 104 106 39
15 -2.35816 -1.85448 105 107 40
15 -2.1712 -2.07024 106 108 41
15 -1.96458 -2.26725 107 109 42
15 -1.74017 -2.44373 108 110 43
15 -1.5 -2.59808 109 111 44
15 -1.24625 -2.7289 110 112 45
15 -0.981204 -2.835 111 113 46
15 -0.707277 -2.91543 112 114 47
15 -0.426945 -2.96946 113 115 48
15 -0.142746 -2.9966 114 116 49
15 0.142746 -2.9966 115 117 50
15 0.426945 -2.96946 116 118 51
15 0.707277 -2.91543 117 119 52
15 0.981204 -2.835 118 120 53
15 1.24625 -2.7289 119 121 54
15 1.5 -2.59808 120 122 55
15 1.74017 -2.44373 121 123 56
15 1.96458 -2.26725 122 124 57
15 2.1712 -2.07024 123 125 58
15 2.35816 -1.85448 124 126 59
15 2.52376 -1.62192 125 127 60
15 2.66651 -1.37468 126 128 61
15 2.7851 -1.11499 127 129 62
15 2.87848 -0.845198 128 130 63
15 2.94579 -0.567754 129 131 64
15 2.98642 -0.285168 130 66 65
-15 1.5 0 197 133 198
-15 1.48913 0.228135 132 134 199
-15 1.45663 0.454203 133 135 200
-15 1.40278 0.676158 134 136 201
-15 1.32808 0.89199 135 137 202
-15 1.23321 1.09974 136 138 203
-15 1.11901 1.29754 137 139 204
-15 0.986528 1.48358 138 140 205
-15 0.836962 1.65619 139 141 206
-15 0.671666 1.8138 140 142 207
-15 0.492137 1.95498 141 143 208
-15 0.3 2.07846 142 144 209
-15 0.096996 2.18312 143 145 210
-15 -0.115037 2.268 144 146 211
-15 -0.334179 2.33235 145 147 212
-15 -0.558444 2.37557 146 148 213
-15 -0.785803 2.39728 147 149 214
-15 -1.0142 2.39728 148 150 215
-15 -1.24156 2.37557 149 151 216
-15 -1.46582 2.33235 150 152 217
-15 -1.68496 2.268 151 153 218
-15 -1.897 2.18312 152 154 219
-15 -2.1 2.07846 153 155 220
-15 -2.29214 1.95498 154 156 221
-15 -2.47167 1.8138 155 157 222
-15 -2.63696 1.65619 156 158 223
-15 -2.78653 1.48358 157 159 224
-15 -2.91901 1.29754 158 160 225
-15 -3.03321 1.09974 159 161 226
-15 -3.12808 0.89199 160 162 227
-15 -3.20278 0.676158 161 163 228
-15 -3.25663 0.454203 162 164 229
-15 -3.28913 0.228135 163 165 230
-15 -3.3 2.93915e-016 164 166 231
-15 -3.28913 -0.228135 165 167 232
-15 -3.25663 -0.454203 166 168 233
-15 -3.20278 -0.676158 167 169 234
-15 -3.12808 -0.89199 168 170 235
-15 -3.03321 -1.09974 169 171 236
-15 -2.91901 -1.29754 170 172 237
-15 -2.78653 -1.48358 171 173 238
-15 -2.63696 -1.65619 172 174 239
-15 -2.47167 -1.8138 173 175 240
-15 -2.29214 -1.95498 174 176 241
-15 -2.1 -2.07846 175 177 242
-15 -1.897 -2.18312 176 178 243
-15 -1.68496 -2.268 177 179 244
-15 -1.46582 -2.33235 178 180 245
-15 -1.24156 -2.37557 179 181 246
-15 -1.0142 -2.39728 180 182 247
-15 -0.785803 -2.39728 181 183 248
-15 -0.558444 -2.37557 182 184 249
-15 -0.334179 -2.33235 183 185 250
-15 -0.115037 -2.268 184 186 251
-15 0.096996 -2.18312 185 187 252
-15 0.3 -2.07846 186 188 253
-15 0.492137 -1.95498 187 189 254
-15 0.671666 -1.8138 188 190 255
-15 0.836962 -1.65619 189 191 256
-15 0.986528 -1.48358 190 192 257
-15 1.11901 -1.29754 191 193 258
-15 1.23321 -1.09974 192 194 259
-15 1.32808 -0.89199 193 195 260
-15 1.40278 -0.676158 194 196 261
-15 1.45663 -0.454203 195 197 262
-15 1.48913 -0.228135 196 132 263
36 1.5 -5.8783e-016 263 199 132
36 1.48913 0.228135 198 200 133
36 1.45663 0.454203 199 201 134
36 1.40278 0.676158 200 202 135
36 1.32808 0.89199 201 203 136
36 1.23321 1.09974 202 204 137
36 1.11901 1.29754 203 205 138
36 0.986528 1.48358 204 206 139
36 0.836962 1.65619 205 207 140
36 0.671666 1.8138 206 208 141
36 0.492137 1.95498 207 209 142
36 0.3 2.07846 208 210 143
36 0.096996 2.18312 209 211 144
36 -0.115037 2.268 210 212 145
36 -0.334179 2.33235 211 213 146
36 -0.558444 2.37557 212 214 147
36 -0.785803 2.39728 213 215 148
36 -1.0142 2.39728 214 216 149
36 -1.24156 2.37557 215 217 150
36 -1.46582 2.33235 216 218 151
36 -1.68496 2.268 217 219 152
36 -1.897 2.18312 218 220 153
36 -2.1 2.07846 219 221 154
36 -2.29214 1.95498 220 222 155
36 -2.47167 1.8138 221 223 156
36 -2.63696 1.65619 222 224 157
36 -2.78653 1.48358 223 225 158
36 -2.91901 1.29754 224 226 159
36 -3.03321 1.09974 225 227 160
36 -3.12808 0.89199 226 228 161
36 -3.20278 0.676158 227 229 162
36 -3.25663 0.454203 228 230 163
36 -3.28913 0.228135 229 231 164
36 -3.3 8.81746e-016 230 232 165
36 -3.28913 -0.228135 231 233 166
36 -3.25663 -0.454203 232 234 167
36 -3.20278 -0.676158 233 235 168
36 -3.12808 -0.89199 234 236 169
36 -3.03321 -1.09974 235 237 170
36 -2.91901 -1.29754 236 238 171
36 -2.78653 -1.48358 237 239 172
36 -2.63696 -1.65619 238 240 173
36 -2.47167 -1.8138 239 241 174
36 -2.29214 -1.95498 240 242 175
36 -2.1 -2.07846 241 243 176
36 -1.897 -2.18312 242 244 177
36 -1.68496 -2.268 243 245 178
36 -1.46582 -2.33235 244 246 179
36 -1.24156 -2.37557 245 247 180
36 -1.0142 -2.39728 246 248 181
36 -0.785803 -2.39728 247 249 182
36 -0.558444 -2.37557 248 250 183
36 -0.334179 -2.33235 249 251 184
36 -0.115037 -2.268 250 252 185
36 0.096996 -2.18312 251 253 186
36 0.3 -2.07846 252 254 187
36 0.492137 -1.95498 253 255 188
36 0.671666 -1.8138 254 256 189
36 0.836962 -1.65619 255 257 190
36 0.986528 -1.48358 256 258 191
36 1.11901 -1.29754 257 259 192
36 1.23321 -1.09974 258 260 193
36 1.32808 -0.89199 259 261 194
36 1.40278 -0.676158 260 262 195
36 1.45663 -0.454203 261 263 196
36 1.48913 -0.228135 262 198 197
